# .PCD v.7 - Point Cloud Data file format
VERSION .7
FIELDS x y z vp_x vp_y vp_z
SIZE 4 4 4 4 4 4
TYPE F F F F F F
COUNT 1 1 1 1 1 1
WIDTH 549
HEIGHT 1
VIEWPOINT 0 0 0 1 0 0 0
POINTS 549
DATA ascii
1.082005 -0.15725 -0.7775 0.017762684166857 -1.89202896558735E-02 -0.11723363691917
1.082005 0.15725 -0.7775 -6.60658460274201E-02 0.169726410107167 -8.67556803915263E-02
1.082005 0.47475 -0.7775 -0.112865675145073 0.222137512019884 5.97565178040726E-02
1.082005 0.7791212 -0.7791211 -0.177566170077075 0.159701085223771 3.80729442153185E-02
1.462005 -0.7740196 0.7835018 0.351650815971921 0.471972628280967 -0.449805007522054
1.462005 -0.47475 0.7775 3.32086449133326E-02 -0.101226258102206 -0.02840274326769
1.462005 -0.15725 0.7775 -0.115149195237443 -0.117686538897284 0.045716867667741
1.462005 0.15725 0.7775 -0.10887418413762 -3.73413436257747E-02 0.040175045762739
1.462005 0.47475 0.7775 4.01272013993627E-02 -9.99807350416397E-02 -8.80688343479545E-02
1.462005 0.7791211 0.7791211 0.239019013361305 -0.470514485429543 -0.363926561377081
1.462005 -0.7570001 0.47475 0.12518993293309 9.79637006151579E-02 8.87328637941281E-03
1.462005 -0.47475 0.47475 6.95954940080527E-02 7.19108887910605E-02 -8.94391763389684E-02
1.462005 -0.15725 0.47475 -0.131336960759296 -0.109490259117727 -1.36174968292999E-02
1.462005 0.15725 0.47475 -2.63832991385459E-02 -0.127808547615086 -1.94619261182111E-02
1.462005 0.47475 0.47475 2.80166979944782E-02 -0.284522573913693 -7.39247172035207E-02
1.462005 0.7775 0.47475 -0.132940561101815 -3.75035943417066E-02 0.224834132458864
1.462005 -0.7685446 0.1511942 0.132302601300314 -4.77048403296565E-02 0.138279574632544
1.462005 -0.47475 0.15725 -3.56629497064297E-02 1.68340020517345E-02 2.04217359115292E-02
1.462005 -0.15725 0.15725 -0.175298534250817 -0.020572624149876 -0.191196980118919
1.462005 0.15725 0.15725 -0.12651127508475 -7.97669854956366E-02 -0.16994929427885
1.462005 0.47475 0.15725 -0.19389918017679 -8.68529389093012E-02 4.71241663878736E-02
1.462005 0.7774999 0.15725 -0.234126313382302 -8.23171379156524E-03 0.269520728362111
1.462005 -0.7774999 -0.15725 0.422058184869324 1.18063500622938E-03 9.93662227638759E-02
1.462005 -0.47475 -0.15725 -5.07261394231227E-02 -0.047987908943366 2.92014047795814E-02
1.462005 -0.15725 -0.15725 -0.178830282723668 -2.93787822508437E-04 -0.303748582743013
1.462005 0.15725 -0.15725 -0.137417265081434 0.108117482181176 -0.305909060467479
1.462005 0.47475 -0.15725 -0.168384404420638 5.00618398097415E-02 6.14860385515312E-03
1.462005 0.7774999 -0.15725 -0.226498387741766 2.92001693261515E-02 0.283080702558497
1.462005 -0.7775 -0.47475 0.922228842353426 2.99978168626592E-02 -9.98056697491123E-02
1.462005 -0.47475 -0.47475 4.26641770901695E-02 -6.47459600177004E-02 4.27136075467004E-02
1.462005 -0.15725 -0.47475 -0.110420264412165 1.88165360867019E-02 -0.201730587514776
1.462005 0.15725 -0.47475 -9.79229319374432E-02 0.222885874358218 -0.222605054094246
1.462005 0.47475 -0.47475 -0.160391470383756 0.192351123802976 -5.73066675926952E-02
1.462005 0.7775 -0.47475 -0.174455786522922 8.57993952494864E-02 0.136521370759882
1.462005 -0.7791211 -0.7791211 0.325500395931268 -3.55843458442065E-02 4.35065031939575E-03
1.462005 -0.47475 -0.7775 5.00088114499809E-02 -0.101327679946785 2.52330997858873E-02
1.462005 -0.15725 -0.7775 -4.82001358300763E-02 -4.06008918493535E-02 -9.69819837402869E-02
1.462005 0.15725 -0.7775 -0.120804754744273 0.102641352241427 -0.146510823791692
1.462005 0.47475 -0.7775 -0.132186843208861 0.207852794955185 -0.059246506031914
1.462005 0.7791211 -0.7791211 -0.136644677995723 0.129165707889034 8.82805871088333E-03
1.8205 -0.7740196 0.7835018 3.69927664878779E-02 6.61702222706264E-03 6.20510975074191E-02
1.8205 -0.47475 0.7775 -2.17737531463944E-02 0.103687632027907 -6.60898599450232E-02
1.8205 -0.15725 0.7775 -0.106614524463855 3.56571484107574E-02 0.157005080135548
1.8205 0.15725 0.7775 -0.162722973792801 -8.19549004460017E-02 0.129186182742536
1.8205 0.47475 0.7775 -0.207383127948087 -0.193025715865406 -0.119989609966369
1.8205 0.7791211 0.7791211 9.63691837835226E-02 -0.017419306002379 -7.27807943725631E-02
1.8205 -0.7570001 0.47475 3.08531102495645E-02 0.125343091424326 -6.78721702541346E-02
1.8205 -0.47475 0.47475 0.107127179130309 0.682839696862329 -0.533315056610314
1.8205 -0.15725 0.47475 -5.03978186683814E-02 0.379476813074548 -0.165642175386767
1.8205 0.15725 0.47475 -2.60633583721324E-02 -0.385074818282553 -0.231409056709699
1.8205 0.47475 0.47475 -5.83994912852641E-02 -0.573105280703031 -0.491746747363928
1.823502 0.7673298 0.4736993 -0.196708095829987 -5.80798136065559E-02 -0.053641867200021
1.8205 -0.7685447 0.1511942 0.101048524223744 8.08069538266755E-02 8.50816255270355E-02
1.8205 -0.47475 0.15725 -4.07010915668522E-02 0.253855773669761 -0.385778361482769
1.8205 -0.15725 0.15725 -1.61696475894516E-02 0.292270469577167 -0.424643185398505
1.8205 0.15725 0.15725 -1.07479092178155E-02 -0.169258671474843 -0.470750677452599
1.8205 0.47475 0.15725 -0.162442669363498 -0.129725125393335 -0.113234306853457
1.813553 0.7620652 0.1575063 -0.231691770691701 -4.32415946004838E-03 0.192727250908551
1.8205 -0.7774999 -0.15725 0.354110515899326 3.38260255453801E-02 7.65208421481406E-02
1.8205 -0.47475 -0.15725 -4.36774176952049E-02 4.32411940646264E-02 -0.113228098173355
1.8205 -0.15725 -0.15725 -3.30831465544287E-02 0.259066075333674 -0.422192798167728
1.8205 0.15725 -0.15725 -7.46741052428726E-03 0.19560805392601 -0.517053026086015
1.8205 0.47475 -0.15725 -0.167470202112377 0.102374623657993 -5.10907482685762E-02
1.821696 0.7734486 -0.1618742 -0.19934916443548 -2.13768149974502E-02 0.158827754846242
1.8205 -0.7775 -0.47475 0.838497400879626 -6.06778920911161E-02 -0.126596018021257
1.8205 -0.47475 -0.47475 7.37604229158105E-02 -0.020864663136178 1.49568826474207E-02
1.8205 -0.15725 -0.47475 -0.10015924260762 4.62084851671308E-02 -0.240327784578221
1.8205 0.15725 -0.47475 -7.60891060841695E-02 0.248284538652875 -0.267349276075869
1.8205 0.47475 -0.47475 -9.86464252780824E-02 0.208608061035747 -3.96774365508767E-02
1.8205 0.7775 -0.47475 -0.149633435516352 9.66373130594081E-02 0.116807776729766
1.8205 -0.7791211 -0.7791211 0.385945439990133 -0.029274876186474 -0.02501265703124
1.8205 -0.47475 -0.7775 3.26308999399054E-02 -0.077063486414131 3.39332536373976E-02
1.8205 -0.15725 -0.7775 -5.61216250145321E-02 -1.70104893642533E-02 -0.101212023282044
1.8205 0.15725 -0.7775 -5.62882945393943E-02 0.13802118463036 -0.138064521896965
1.8205 0.47475 -0.7775 -8.32367664860142E-02 0.189837381035347 -6.92249625455861E-02
1.8205 0.7791211 -0.7791211 -7.98814324901742E-02 0.134184014465094 4.14908430985861E-02
2.180326 -0.778061 0.7798509 -0.341271693397518 0.374715140614877 -0.521623554238184
2.179005 -0.47475 0.7775 -0.191884982844323 0.057416675058026 0.180134973603347
2.179005 -0.15725 0.7775 -9.48011206455513E-02 -2.67833462947582E-02 0.104016436029479
2.179005 0.15725 0.7775 -0.07903095957451 6.19943853490547E-02 0.105065405057117
2.179005 0.47475 0.7775 -0.181560495985356 -6.82394822103966E-02 0.129095495264174
2.159372 0.7743598 0.8018053 -0.476824305930746 -0.507689443411677 -0.368926600075028
2.077052 -0.772396 0.4748883 -0.153846050821378 0.250460770018351 8.69261785704314E-03
2.171746 -0.460947 0.47475 -0.131766549490047 0.229410514546699 3.03148557936039E-02
2.179005 -0.15725 0.47475 -5.2273745773451E-03 0.135966005666152 6.64333617593387E-02
2.179005 0.15725 0.47475 6.10635500838985E-02 0.115359954040844 3.92840738060688E-02
2.179005 0.47475 0.47475 -7.57547187829062E-02 2.30039209617068E-02 9.74880200099925E-02
2.104895 0.7566601 0.47475 -8.28649192595975E-02 -9.96944146185381E-02 8.46650724670001E-02
2.076259 -0.774495 0.1552179 8.50988876521882E-02 0.25919945761418 0.213872348833056
2.169252 -0.4591252 0.1612903 -8.74530174798102E-02 8.74620394719603E-02 0.115178215922473
2.179005 -0.15725 0.15725 1.55863680205965E-02 0.148387776228169 -7.18851512844971E-02
2.179005 0.15725 0.15725 0.126946001040662 0.203027338069157 -0.165148928810364
2.179005 0.47475 0.15725 -7.62689221777198E-02 7.76696593877369E-02 8.25520354211215E-02
2.161327 0.7675816 0.1264638 -0.138594269646641 -7.20432340998091E-02 0.175700590376542
2.166271 -0.7772334 -0.1777396 0.452859961177789 0.102689539928239 1.93929712545984E-02
2.174815 -0.4686827 -0.1640831 -1.60732927669796E-02 8.98243806446544E-02 1.59730864241088E-02
2.179005 -0.15725 -0.15725 -0.047497728560859 0.103598734903037 -0.12648345247407
2.179005 0.15725 -0.15725 4.57708341002295E-02 0.18022838235419 -0.193710929019143
2.179005 0.47475 -0.15725 -6.03418018861049E-02 0.133769274334564 -5.97201631404267E-04
2.179005 0.7774999 -0.15725 -0.128175255325543 1.67887993228068E-02 0.193132001281156
2.179005 -0.7775 -0.47475 0.720408476350811 2.12547196698379E-02 -0.261002504686228
2.179005 -0.47475 -0.47475 0.118531425495125 0.040805644864411 -6.12025534534719E-03
2.179005 -0.15725 -0.47475 -5.48462109022625E-02 8.05136537454797E-02 -0.106216723780849
2.179005 0.15725 -0.47475 -2.69346566896525E-02 0.155373555165264 -0.138168730522984
2.179005 0.47475 -0.47475 -4.21364418721909E-02 0.191758943339066 8.65029782197541E-03
2.179005 0.7775 -0.47475 -9.90430783980559E-02 9.21696621517315E-02 0.125449789119985
2.179005 -0.7791212 -0.7791211 0.52329839797343 -7.46500029306202E-02 -8.65637394824991E-02
2.179005 -0.47475 -0.7775 3.42136124939744E-02 -4.29389467677197E-02 -6.59237395889976E-03
2.179005 -0.15725 -0.7775 -6.83732690926364E-02 9.85601950396569E-03 -0.037984061642194
2.179005 0.15725 -0.7775 -4.70922819301749E-02 9.41175636263331E-02 -4.29790408038076E-02
2.179005 0.47475 -0.7775 -4.03890673626131E-02 0.137697255721201 1.39368020255722E-02
2.179005 0.7791212 -0.7791211 -8.33758258089439E-02 0.112301214810305 5.04906051070643E-02
2.179005 -0.15725 -0.47475 -5.32785912509985E-02 3.87751452130198E-02 -8.32380948386132E-02
2.179005 0.15725 -0.47475 -2.35351823606099E-02 0.127179524235955 -0.138393135909023
2.179005 0.47475 -0.47475 -0.034975635743749 0.174050793217217 4.67931844294974E-03
2.179005 0.7775 -0.47475 -0.088673100171424 9.21967432669086E-02 0.13775622706627
2.179005 -0.7791212 -0.7791211 0.458020016431888 -2.20394565024387E-02 -4.20080583921595E-02
2.179005 -0.47475 -0.7775 0.044494583406335 -4.12773610110069E-02 -5.68917921936354E-03
2.179005 -0.15725 -0.7775 -7.61192443780303E-02 6.95521288369778E-03 -3.72301605195477E-02
2.179005 0.15725 -0.7775 -3.20566811028939E-02 0.115686417053242 -3.36117502710137E-02
2.179005 0.47475 -0.7775 -0.031897818291213 0.141560135667165 1.62795084395609E-02
2.179005 0.7791212 -0.7791211 -7.36902836395405E-02 0.11675290360534 4.58399704547457E-02
2.480011 -0.7772327 0.7807427 -0.267393216605833 0.304871806245593 -0.427202117156766
2.482005 -0.47475 0.7775 -4.77074625748431E-02 -0.015987714735097 -0.112785498086169
2.482005 -0.15725 0.7775 2.32309027672287E-02 -4.49988619594893E-02 3.51458188732892E-02
2.482005 0.15725 0.7775 -9.31870449515747E-03 8.23207647756041E-02 3.93464035477807E-02
2.482005 0.47475 0.7775 -0.180593463610037 -3.44163515017292E-02 -4.25069709012303E-02
2.482005 0.7791212 0.7791211 -0.272987029427829 -0.403751214708555 -0.41703728547649
2.475242 -0.7713631 0.4749281 -0.123259888156033 0.152427950919632 -9.90539055719201E-02
2.482005 -0.47475 0.47475 -0.176222947474258 0.140156962892771 -0.278346765564371
2.482005 -0.15725 0.47475 5.21244326327819E-02 3.65453776112063E-02 -3.81370020524496E-02
2.482005 0.15725 0.47475 -2.53965444166105E-03 -4.56030413490205E-02 -6.55913351680214E-03
2.482005 0.47475 0.47475 -0.223268392849505 -0.317134566671966 -9.37554581491052E-02
2.482005 0.7775 0.47475 -0.206142358997235 -0.117099761726475 9.16253094072315E-02
2.478961 -0.774798 0.1552576 0.108188389484812 -1.90511715955373E-02 9.46774386216073E-02
2.482005 -0.47475 0.15725 -9.82718319430289E-02 5.02723391399829E-03 -7.48094714397007E-02
2.482005 -0.15725 0.15725 3.91051386180741E-02 2.30243588623703E-02 -0.223157953758937
2.482005 0.15725 0.15725 1.78301963458688E-02 1.88767681863588E-02 -0.165959919889211
2.482005 0.47475 0.15725 -0.142550291882557 -2.44180178392645E-02 6.22750337156715E-02
2.482005 0.7774999 0.15725 -0.175503383515926 4.5658067500513E-03 0.273927768096888
2.482005 -0.7774999 -0.15725 0.413364597611328 -2.40942845397543E-02 1.26736671556708E-02
2.482005 -0.47475 -0.15725 -0.029320738848638 -8.10861324293955E-02 1.90662374742531E-03
2.482005 -0.15725 -0.15725 -1.01647522483433E-02 -2.76621012176953E-02 -0.330070205580909
2.482005 0.15725 -0.15725 -3.83332253779598E-02 0.121655906821591 -0.229762582582358
2.482005 0.47475 -0.15725 -0.130057871338299 0.103490807915816 3.45440474664987E-02
2.482005 0.7774999 -0.15725 -0.241965312605435 8.05540861777721E-02 0.248826957608877
2.482005 -0.7775 -0.47475 0.788192246480349 9.13491021722375E-03 -0.163418005094803
2.482005 -0.47475 -0.47475 4.74990515856744E-02 -8.01727665841691E-02 -3.00139091885803E-02
2.482005 -0.15725 -0.47475 -5.18541030065535E-02 -3.79118800382252E-02 -0.241547536897883
2.482005 0.15725 -0.47475 -6.37301856871322E-02 0.170141158815008 -0.167316971333572
2.482005 0.47475 -0.47475 -0.142712428687332 0.188750019268894 4.92124205201112E-02
2.482005 0.7775 -0.47475 -0.236032412139007 0.128641263996532 0.136734624928806
2.482005 -0.7791212 -0.7791211 0.19317799322605 -0.080239920436821 -1.88909479568968E-02
2.482005 -0.47475 -0.7775 8.14137479611809E-02 -0.136871339303552 -5.52806267071357E-02
2.482005 -0.15725 -0.7775 3.53725932434618E-02 -3.12222935770889E-02 -0.117635017675414
2.482005 0.15725 -0.7775 -6.85059766373045E-02 0.164106483060532 -9.24762770728205E-02
2.482005 0.47475 -0.7775 -9.19315675186284E-02 0.237433191654606 4.79388624621061E-02
2.482005 0.7791212 -0.7791211 -0.189365135963841 0.178008397793281 7.34039225351599E-02
2.862005 -0.7740196 0.7835018 0.38779209891309 0.461550998431022 -0.519766164572447
2.862005 -0.47475 0.7775 3.87217689494694E-02 -0.105714912192764 -2.58992510135525E-02
2.862005 -0.15725 0.7775 -0.143586245783355 -0.155374961662908 4.96351757578157E-02
2.862005 0.15725 0.7775 -0.109021166476651 -0.032209314226904 4.53024274942138E-02
2.862005 0.47475 0.7775 6.13754444445655E-02 -9.26628927090108E-02 -7.79058605331264E-02
2.862005 0.7791211 0.7791211 0.249314515776945 -0.505765332048259 -0.336867611904986
2.862005 -0.7570001 0.47475 0.124532634065866 6.15849224742867E-02 1.08031680293602E-02
2.862005 -0.47475 0.47475 6.81555176003198E-02 6.98224598182297E-02 -7.89251479054586E-02
2.862005 -0.15725 0.47475 -0.116017108932252 -9.89627454526381E-02 -7.73998659304138E-03
2.862005 0.15725 0.47475 -2.58481055654423E-02 -0.117086841035948 -4.97823656299254E-02
2.862005 0.47475 0.47475 -2.43013382517011E-03 -0.240440788059373 -7.49107710534986E-02
2.862005 0.7775 0.47475 -0.136314627934541 -4.57121091761631E-02 0.227818090176373
2.862005 -0.7685446 0.1511942 0.12219222846643 -2.84025002978655E-02 0.154168857512502
2.862005 -0.47475 0.15725 -4.48219978987082E-02 1.61091806801815E-02 1.20587742399726E-02
2.862005 -0.15725 0.15725 -0.1630290205419 -3.82511314751134E-02 -0.188327456279809
2.862005 0.15725 0.15725 -0.131335261869422 -8.28003821500088E-02 -0.202369946967415
2.862005 0.47475 0.15725 -0.197986609057568 -6.31447371755956E-02 5.74462903920154E-02
2.862005 0.7774999 0.15725 -0.198711910986219 2.22616040875248E-02 0.286098145918235
2.862005 -0.7774999 -0.15725 0.389591607781024 -0.104874403827054 3.39239976147038E-02
2.862005 -0.47475 -0.15725 -5.12130290517172E-02 -4.85159991817752E-02 0.035349166020862
2.862005 -0.15725 -0.15725 -0.183344215372833 -5.94855476066622E-03 -0.263115624401594
2.862005 0.15725 -0.15725 -0.147713274322466 8.72347310686792E-02 -0.289647944171646
2.862005 0.47475 -0.15725 -0.151480349980603 5.34256954308258E-02 1.61366346027871E-02
2.862005 0.7774999 -0.15725 -0.258367981980788 -7.17907288233059E-03 0.220241770142568
2.862005 -0.7775 -0.47475 0.76487525697005 3.33380870926561E-02 -6.55311319328124E-02
2.862005 -0.47475 -0.47475 0.05272184713909 -5.74674613934763E-02 4.62445225096967E-02
2.862005 -0.15725 -0.47475 -0.114756899038827 1.96262088314672E-02 -0.206765725367424
2.862005 0.15725 -0.47475 -0.145928430097285 0.149226499077093 -0.248700236278724
2.862005 0.47475 -0.47475 -0.129647707824511 0.178698163300347 -2.51017045916683E-02
2.862005 0.7775 -0.47475 -0.196291771369956 6.65471527770563E-02 0.123980261854767
2.862005 -0.7791211 -0.7791211 0.337604489670646 -0.109337378946822 -5.20530215554759E-02
2.862005 -0.47475 -0.7775 3.84579323342098E-02 -0.113092418459425 5.25448585863758E-03
2.862005 -0.15725 -0.7775 -4.79906645707044E-02 -1.83896241747975E-02 -0.10456027699187
2.862005 0.15725 -0.7775 -0.115026323153483 0.124681373208912 -0.147396711372686
2.862005 0.47475 -0.7775 -0.104512833460481 0.218419680007201 -2.60904012122039E-02
2.862005 0.7791211 -0.7791211 -0.162650891067197 0.138861168721803 1.05120756396472E-02
3.2205 -0.7740196 0.7835018 3.76484988269062E-02 -9.02141467409313E-04 5.43595203830189E-02
3.2205 -0.47475 0.7775 -2.44754181640216E-02 0.107264347395039 -7.38276822651482E-02
3.2205 -0.15725 0.7775 -0.092185812706518 5.72362501660297E-02 0.158051773612285
3.2205 0.15725 0.7775 -0.171752256587232 -8.20104072842539E-02 0.122307481135537
3.2205 0.47475 0.7775 -0.174938653977403 -0.198284609907234 -0.114034535422911
3.2205 0.7791211 0.7791211 8.40059430729123E-02 -0.038510897306578 -8.70147013012286E-02
3.2205 -0.7570001 0.47475 4.16585664603283E-02 0.132347113175013 -0.058078565266865
3.2205 -0.47475 0.47475 6.60968372980666E-02 0.610288091622457 -0.573599418855409
3.2205 -0.15725 0.47475 -4.35282116711763E-02 0.302750629273532 -0.155801432034995
3.2205 0.15725 0.47475 7.19559315690604E-02 -0.390716450991664 -0.217750854904742
3.2205 0.47475 0.47475 -1.69847974457923E-02 -0.600427500247982 -0.530653976972594
3.223502 0.7673298 0.4736993 -0.231376869490025 -6.46352060708819E-02 -0.112190811458781
3.2205 -0.7685447 0.1511942 0.125767787157926 4.56154964487447E-02 9.27003353188979E-02
3.2205 -0.47475 0.15725 -2.84704249066546E-02 0.275129589076967 -0.377955597374681
3.2205 -0.15725 0.15725 -0.026361165836451 0.345220694664625 -0.503791090733857
3.2205 0.15725 0.15725 0.101828260950085 -0.129837081460047 -0.480274239776957
3.2205 0.47475 0.15725 -0.178088364809306 -0.111107846768852 -9.60626585207113E-02
3.213553 0.7620652 0.1575063 -0.210678077015978 -3.74486530613362E-02 0.144603282718305
3.2205 -0.7774999 -0.15725 0.345533657312044 2.62641119650249E-02 9.61842516254077E-02
3.2205 -0.47475 -0.15725 -4.72670029141927E-02 6.32180595693211E-02 -9.28623609307659E-02
3.2205 -0.15725 -0.15725 -0.137257795544463 0.146356086483808 -0.458070610468813
3.2205 0.15725 -0.15725 -1.44507888233617E-03 0.172784722859247 -0.404277535000663
3.2205 0.47475 -0.15725 -0.168868268895891 9.63618398880593E-02 -5.00772849469394E-02
3.221696 0.7734486 -0.1618742 -0.245155877414447 -2.93541087914556E-02 0.196105799073086
3.2205 -0.7775 -0.47475 0.832215336718749 5.92391606228082E-02 4.49492645268601E-02
3.2205 -0.47475 -0.47475 7.04728896570477E-02 -1.23032004321333E-02 2.46753169357046E-02
3.2205 -0.15725 -0.47475 -8.25985167649344E-02 0.107304926373237 -0.260931444101144
3.2205 0.15725 -0.47475 -9.36909029381851E-02 0.191874985562426 -0.338027370393596
3.2205 0.47475 -0.47475 -0.120328331952307 0.216197306697192 -8.81879932744357E-02
3.2205 0.7775 -0.47475 -0.154603736443948 0.10382410239274 0.131504144378313
3.2205 -0.7791211 -0.7791211 0.45440786487217 -2.39923356757653E-02 -3.1941714265549E-03
3.2205 -0.47475 -0.7775 3.58237583518834E-02 -0.070081820672955 4.07447922119466E-02
3.2205 -0.15725 -0.7775 -4.81017516344617E-02 -2.92849062301749E-02 -0.095613380801331
3.2205 0.15725 -0.7775 -4.77685259784912E-02 0.123915959975967 -0.152848312120279
3.2205 0.47475 -0.7775 -7.77253513925959E-02 0.181035310759179 -6.50041285896711E-02
3.2205 0.7791211 -0.7791211 -0.109070596349052 0.13162626420791 2.46740677913099E-02
3.580326 -0.778061 0.7798509 -0.297644795723863 0.438403669242527 -0.468369567900168
3.579005 -0.47475 0.7775 -0.160252411609175 5.55975481580089E-02 0.185871930642576
3.579005 -0.15725 0.7775 -9.91152646551372E-02 -0.037385749102315 0.123692673190747
3.579005 0.15725 0.7775 -7.13264005993192E-02 5.34566429909874E-02 0.088966196727711
3.579005 0.47475 0.7775 -0.180542954339653 -6.54301982367625E-02 0.144407772520123
3.559372 0.7743598 0.8018053 -0.427907444381747 -0.510751970348977 -0.367446836809828
3.477052 -0.772396 0.4748883 -7.84001297493004E-02 0.246325275269719 3.38434802751833E-02
3.571746 -0.460947 0.47475 -0.10926721452228 0.25973520919986 4.84613315253173E-02
3.579005 -0.15725 0.47475 -1.98878918900509E-02 0.13797292320047 6.44616042462109E-02
3.579005 0.15725 0.47475 5.57110713492008E-02 0.123697296074039 2.98716074558898E-02
3.579005 0.47475 0.47475 -9.25652240351118E-02 3.79730648340769E-03 8.80467373930948E-02
3.504895 0.7566601 0.47475 -5.80617979710274E-02 -8.70679517625779E-02 0.113111477013956
3.476259 -0.774495 0.1552179 7.46299971317385E-02 0.279008694950545 0.19208138098417
3.569252 -0.4591252 0.1612903 -0.114323997670755 8.81125607816559E-02 8.04326083107734E-02
3.579005 -0.15725 0.15725 9.24989012700415E-03 0.161310806432986 -9.46632176699054E-02
3.579005 0.15725 0.15725 0.136436769031883 0.180850128864955 -0.124203885501823
3.579005 0.47475 0.15725 -6.60726665621371E-02 8.04151725424683E-02 7.07663461792271E-02
3.561327 0.7675816 0.1264638 -0.137427087605551 -7.49359499295081E-02 0.158205756974138
3.566271 -0.7772334 -0.1777396 0.41390619608633 0.108982930508606 2.85905843678523E-02
3.574815 -0.4686827 -0.1640831 -1.94836151140009E-02 0.101804721414166 1.75243847049852E-02
3.579005 -0.15725 -0.15725 -4.75944461914325E-02 0.11887823083592 -0.120964652519224
3.579005 0.15725 -0.15725 3.16230788064828E-02 0.192662245279271 -0.21511189371003
3.579005 0.47475 -0.15725 -5.82248813063449E-02 0.149379557700337 7.07470729135379E-03
3.579005 0.7774999 -0.15725 -0.106157897296091 3.12680467708206E-02 0.181050658071717
3.579005 -0.7775 -0.47475 0.764659981802787 0.167512656003131 -1.91801959965332E-02
3.579005 -0.47475 -0.47475 0.12277295420431 3.19526227976086E-02 -2.19597938587378E-02
3.579005 -0.15725 -0.47475 -4.97101148519315E-02 6.09584150387331E-02 -0.077044353668981
3.579005 0.15725 -0.47475 -2.84728740925884E-02 0.131152175672306 -0.127585439838313
3.579005 0.47475 -0.47475 -4.76295575379556E-02 0.176930606193012 5.78000206560798E-03
3.579005 0.7775 -0.47475 -0.111097257593316 0.096197896266778 0.131503402092738
3.579005 -0.7791212 -0.7791211 0.507099868930533 -8.06232360808543E-02 -7.27355136471155E-02
3.579005 -0.47475 -0.7775 4.43966354917629E-02 -4.46698325828271E-02 5.93863513873127E-03
3.579005 -0.15725 -0.7775 -0.068285837833581 7.95793361095728E-03 -3.96800610564628E-02
3.579005 0.15725 -0.7775 -3.96819570991414E-02 0.108963012029755 -4.66227237813201E-02
3.579005 0.47475 -0.7775 -5.58423006665906E-02 0.119364498426405 3.74474028358696E-03
3.579005 0.7791212 -0.7791211 -6.08485111267169E-02 0.122892413156143 5.13004026917272E-02
3.579005 -0.15725 -0.47475 -7.84223690066587E-02 5.86772926637691E-02 -0.101037433476702
3.579005 0.15725 -0.47475 -1.67074885536249E-02 0.165690405353806 -9.42113497566026E-02
3.579005 0.47475 -0.47475 -5.16746896781342E-02 0.195174840148873 2.33666125789461E-02
3.579005 0.7775 -0.47475 -0.101825678602666 0.104606770345094 0.140553781479361
3.579005 -0.7791212 -0.7791211 0.475645062874412 -7.30584003114578E-02 -7.15419340693927E-02
3.579005 -0.47475 -0.7775 0.040407296919197 -5.11749142998419E-02 -7.72385717783751E-03
3.579005 -0.15725 -0.7775 -6.58922434169774E-02 1.31945447187769E-02 -3.48503694354049E-02
3.579005 0.15725 -0.7775 -2.88612288726903E-02 0.10042649319486 -2.64970076360606E-02
3.579005 0.47475 -0.7775 -4.16233002634278E-02 0.136640679246669 0.02618920511293
3.579005 0.7791212 -0.7791211 -8.64427279293851E-02 0.139591796999118 5.03875420386513E-02
3.880011 -0.7772327 0.7807427 -0.158038593158243 0.374640142411713 -0.348507978272314
3.882005 -0.47475 0.7775 -4.56266601293815E-02 -3.56015351697647E-02 -0.105465167610849
3.882005 -0.15725 0.7775 1.99990710388668E-02 -5.68161881315529E-02 3.20250124601561E-02
3.882005 0.15725 0.7775 -2.67050329583225E-02 6.59794293731088E-02 3.55798255945852E-02
3.882005 0.47475 0.7775 -0.174158011759742 -8.15471088806924E-02 -3.50807618754059E-02
3.882005 0.7791212 0.7791211 -0.299188245843958 -0.500787326450927 -0.472696109582769
3.875242 -0.7713631 0.4749281 -0.155945871476762 0.134572255514238 -0.12181756212958
3.882005 -0.47475 0.47475 -0.159909895069573 0.215923421986114 -0.249515797753447
3.882005 -0.15725 0.47475 5.44582412344673E-02 3.32526037367632E-02 -4.25423436314774E-02
3.882005 0.15725 0.47475 -1.12622489888551E-02 -4.21406246095169E-02 -7.52280815693688E-03
3.882005 0.47475 0.47475 -0.211052426771439 -0.303781832225856 -0.129414303918073
3.882005 0.7775 0.47475 -0.237745672317283 -0.161909465096077 4.46935971427112E-02
3.878961 -0.774798 0.1552576 8.71949154372646E-02 -4.43989295090081E-02 0.104401686193673
3.882005 -0.47475 0.15725 -8.71797155773423E-02 8.38045836491993E-04 -0.085690776385938
3.882005 -0.15725 0.15725 6.44882032019326E-02 0.043003875328147 -0.256883410575991
3.882005 0.15725 0.15725 1.00277512259641E-02 6.43335279518058E-03 -0.155558401541714
3.882005 0.47475 0.15725 -0.167321476644057 -1.70162809164837E-02 4.80015056431647E-02
3.882005 0.7774999 0.15725 -0.202952454274094 1.50677242037673E-02 0.308040555910124
3.882005 -0.7774999 -0.15725 0.456788423373268 -8.58299032990062E-02 -5.53643347101823E-02
3.882005 -0.47475 -0.15725 -2.92913353916574E-02 -7.40195625350407E-02 3.62061766551388E-03
3.882005 -0.15725 -0.15725 1.32785001442516E-02 3.75434760220932E-03 -0.282636382049489
3.882005 0.15725 -0.15725 -2.60221301222209E-02 0.130198868549927 -0.224602066162937
3.882005 0.47475 -0.15725 -0.124970144211601 0.1552957036776 4.24399492610955E-02
3.882005 0.7774999 -0.15725 -0.165529545787382 7.03848901545628E-02 0.211061141288433
3.882005 -0.7775 -0.47475 0.703450834110364 -0.086884171729438 -0.197022359101743
3.882005 -0.47475 -0.47475 4.20097708607792E-02 -8.90089931018873E-02 -3.87988611875243E-02
3.882005 -0.15725 -0.47475 -6.62374073343886E-03 2.97274648205968E-03 -0.236661732591878
3.882005 0.15725 -0.47475 -8.04542286869556E-02 0.149792152451577 -0.17269026611991
3.882005 0.47475 -0.47475 -0.145878428138969 0.212274621073208 4.66425894987231E-02
3.882005 0.7775 -0.47475 -0.226083372203769 0.137674171854774 0.200527703929785
3.882005 -0.7791212 -0.7791211 0.193706663333043 -9.28521888255645E-02 -0.046789067336337
3.882005 -0.47475 -0.7775 0.08196523377184 -0.104846709148383 -4.39823604856136E-02
3.882005 -0.15725 -0.7775 3.07772599044904E-02 -1.06459676253342E-02 -0.109863836409822
3.882005 0.15725 -0.7775 -4.59333956775217E-02 0.140676812529892 -6.68016563628717E-02
3.882005 0.47475 -0.7775 -0.16338143015244 0.25656732265233 -2.02184921636711E-03
3.882005 0.7791212 -0.7791211 -0.240387970121633 0.143813331082973 5.51517411126275E-02
4.262005 -0.7740196 0.7835018 0.250619053330178 0.325208515409267 -0.494713079800479
4.262005 -0.47475 0.7775 4.54235546406932E-02 -9.62943941517804E-02 -0.01745360079285
4.262005 -0.15725 0.7775 -9.79095064714753E-02 -0.125760151383185 0.132101816403648
4.262005 0.15725 0.7775 -0.102185316560913 -7.50144082990009E-03 7.63739752607731E-02
4.262005 0.47475 0.7775 4.50075598852222E-02 -0.103110933123784 -9.04670107922418E-02
4.262005 0.7791211 0.7791211 0.197711398084344 -0.54398778231339 -0.399942448116319
4.262005 -0.7570001 0.47475 0.104424352545798 0.100295249812227 2.03858610890383E-02
4.262005 -0.47475 0.47475 7.46613825097765E-02 7.74016714498096E-02 -7.69655127646921E-02
4.262005 -0.15725 0.47475 -0.134732498652072 -0.106805663161996 -3.10533333776526E-03
4.262005 0.15725 0.47475 -9.39047376361932E-03 -0.111281303485316 -3.75239606408588E-02
4.262005 0.47475 0.47475 1.04673954718777E-02 -0.249426027668881 -5.68245894254697E-02
4.262005 0.7775 0.47475 -0.131727417253661 -0.041684250946592 0.232509414176167
4.262005 -0.7685446 0.1511942 0.104609298955012 -1.69284746654778E-02 0.125064127730528
4.262005 -0.47475 0.15725 -4.77146074644703E-02 1.33617108325628E-02 5.81318528641696E-03
4.262005 -0.15725 0.15725 -0.179889309411553 -4.56534712145866E-02 -0.146526277400043
4.262005 0.15725 0.15725 -0.12440752754589 -4.45440746013272E-02 -0.207525767008927
4.262005 0.47475 0.15725 -0.194528904938406 -0.107387440432178 3.39174524790531E-02
4.262005 0.7774999 0.15725 -0.205770981387971 7.38029893228816E-04 0.249026124934557
4.262005 -0.7774999 -0.15725 0.38588236824254 -4.86362413550258E-02 7.97380315638587E-02
4.262005 -0.47475 -0.15725 -5.44215358047078E-02 -4.83962256475559E-02 3.25932459079044E-02
4.262005 -0.15725 -0.15725 -0.155402261283612 -0.044312574906269 -0.302510721276478
4.262005 0.15725 -0.15725 -0.160825984217439 3.06182151546666E-02 -0.293488575747981
4.262005 0.47475 -0.15725 -0.149491053385745 4.36991225723732E-02 -0.014904532974323
4.262005 0.7774999 -0.15725 -0.210876459958026 4.29242240203596E-02 0.275414816401965
4.262005 -0.7775 -0.47475 0.873198964712234 -1.56022686797959E-02 -0.120846465022548
4.262005 -0.47475 -0.47475 4.14312544838689E-02 -7.76481858708711E-02 4.00710195416053E-02
4.262005 -0.15725 -0.47475 -0.119082217690683 6.34766164376491E-02 -0.232942197271924
4.262005 0.15725 -0.47475 -0.149893607400309 0.173844663547119 -0.266513841985948
4.262005 0.47475 -0.47475 -0.186496419967188 0.144898439192171 -7.91618465330957E-02
4.262005 0.7775 -0.47475 -0.150331709867363 0.104013430911933 0.174391864506296
4.262005 -0.7791211 -0.7791211 0.325796578332572 -0.089584467204149 -4.79852741679125E-02
4.262005 -0.47475 -0.7775 0.050007887505155 -0.119310497714186 2.91108518062016E-02
4.262005 -0.15725 -0.7775 -3.59419849817306E-02 -1.26872503197094E-02 -9.20926907791311E-02
4.262005 0.15725 -0.7775 -0.114321186943463 0.124764508898154 -0.14651550180735
4.262005 0.47475 -0.7775 -0.121230125552288 0.171691671568724 -5.20496031967059E-02
4.262005 0.7791211 -0.7791211 -0.151867748862049 0.145831976878039 4.91161442030043E-03
4.6205 -0.7740196 0.7835018 3.76920350680567E-02 -6.22277392586848E-03 0.055453603637171
4.6205 -0.47475 0.7775 -2.50427306531755E-02 9.92811446874899E-02 -7.14193493401268E-02
4.6205 -0.15725 0.7775 -0.100869462010794 0.034131785585839 0.123429805045572
4.6205 0.15725 0.7775 -0.171678824043345 -8.33637667124583E-02 0.115815880326011
4.6205 0.47475 0.7775 -0.219807100333875 -0.210109072042802 -7.65103620518472E-02
4.6205 0.7791211 0.7791211 0.103946469660042 -2.69925970070299E-02 -7.48538859346942E-02
4.6205 -0.7570001 0.47475 4.24532625585286E-02 0.127864157863005 -5.18754980451236E-02
4.6205 -0.47475 0.47475 2.19614677252071E-02 0.554730064433823 -0.604211136597082
4.6205 -0.15725 0.47475 -6.69643628088644E-02 0.282336725879974 -0.159964324664773
4.6205 0.15725 0.47475 0.047939425750735 -0.370490698337258 -0.165592120905715
4.6205 0.47475 0.47475 9.29464266610314E-02 -0.599283265214833 -0.415940460752763
4.623502 0.7673298 0.4736993 -0.207354817079635 -2.12821789068597E-02 -0.022551755640001
4.6205 -0.7685447 0.1511942 0.115960669534994 5.28501671982619E-02 7.65295255562966E-02
4.6205 -0.47475 0.15725 -4.70015241151343E-02 0.244556985337784 -0.398090873185589
4.6205 -0.15725 0.15725 -0.118908399719621 0.35560193015931 -0.587587012259686
4.6205 0.15725 0.15725 -0.010120154740684 -0.221004783583091 -0.503303062366539
4.6205 0.47475 0.15725 -0.207264108865557 -0.127765764268026 -0.111901602065532
4.613553 0.7620652 0.1575063 -0.21287407283122 -0.029621190734711 0.147580115637811
4.6205 -0.7774999 -0.15725 0.329067426375545 2.35022484408291E-02 9.39030407421361E-02
4.6205 -0.47475 -0.15725 -4.29296076044954E-02 4.55348281298721E-02 -0.113799940368062
4.6205 -0.15725 -0.15725 -9.96891557622366E-02 0.155597942075989 -0.518709057224844
4.6205 0.15725 -0.15725 -4.11535724438333E-02 0.17090167337194 -0.463845799785883
4.6205 0.47475 -0.15725 -0.15824881372019 0.111319822561369 -0.031352185306052
4.621696 0.7734486 -0.1618742 -0.226424992469402 -0.02134103725627 0.192560290466686
4.6205 -0.7775 -0.47475 0.687752870686039 0.117575251627362 2.25209844502128E-02
4.6205 -0.47475 -0.47475 6.68585713433856E-02 -8.76964335786424E-03 2.09662128431152E-02
4.6205 -0.15725 -0.47475 -7.38449880691558E-02 0.080992600457365 -0.251077201832304
4.6205 0.15725 -0.47475 -4.90243977268763E-02 0.189762914953186 -0.308171634041207
4.6205 0.47475 -0.47475 -0.107658219764238 0.209390826209099 -8.59419689987995E-02
4.6205 0.7775 -0.47475 -0.137364393704528 0.118317223194627 0.126730157113275
4.6205 -0.7791211 -0.7791211 0.409892558295818 -1.75181943944678E-02 2.02330919467086E-02
4.6205 -0.47475 -0.7775 2.36784588331002E-02 -7.41538044986958E-02 2.21564682434369E-02
4.6205 -0.15725 -0.7775 -5.81366674841504E-02 -1.72132409237458E-02 -0.107720623077248
4.6205 0.15725 -0.7775 -7.11990442948958E-02 0.139777867801229 -0.183745946933028
4.6205 0.47475 -0.7775 -8.35131161453187E-02 0.195639006830863 -5.05409857059692E-02
4.6205 0.7791211 -0.7791211 -0.108716570169447 0.138676761362597 3.84329731769312E-02
4.980326 -0.778061 0.7798509 -0.360986299969222 0.420506337109511 -0.546048339246385
4.979005 -0.47475 0.7775 -0.205046579752842 1.58238004359797E-02 0.169489451679423
4.979005 -0.15725 0.7775 -8.79869058680595E-02 -2.56716334636744E-02 0.115163803126786
4.979005 0.15725 0.7775 -6.15810444393693E-02 7.12169097660048E-02 0.103048048101936
4.979005 0.47475 0.7775 -0.179988029389786 -8.47958379907444E-02 0.128487375040764
4.959372 0.7743598 0.8018053 -0.427716537028193 -0.567731719487994 -0.369901373377754
4.877052 -0.772396 0.4748883 -0.156083005504041 0.24429522349844 -7.58256987902455E-03
4.971746 -0.460947 0.47475 -0.14264561029003 0.227825725333218 3.24663888458999E-02
4.979005 -0.15725 0.47475 -2.56810029207272E-02 0.144723751913852 6.52785534717477E-02
4.979005 0.15725 0.47475 5.23035837466105E-02 0.113793672197612 2.99824089036884E-02
4.979005 0.47475 0.47475 -9.40896515518042E-02 1.27292276798109E-02 9.47499060401531E-02
4.904895 0.7566601 0.47475 -7.05734560171067E-02 -8.20445570633769E-02 0.110768021553292
4.876259 -0.774495 0.1552179 0.155655349148457 0.240390384484755 0.190842435736716
4.969252 -0.4591252 0.1612903 -0.096746224896546 7.77830087905506E-02 7.98891276899751E-02
4.979005 -0.15725 0.15725 1.10724378964024E-02 0.157932836543642 -9.98152476145026E-02
4.979005 0.15725 0.15725 0.130605291516505 0.206058304953229 -0.158847542460479
4.979005 0.47475 0.15725 -7.65840000519116E-02 7.40755001494354E-02 7.33403500503847E-02
4.961327 0.7675816 0.1264638 -0.15380083891848 -7.99330112788117E-02 0.133270556731209
4.966271 -0.7772334 -0.1777396 0.415254252039123 9.51787913076696E-02 1.73758151768541E-02
4.974815 -0.4686827 -0.1640831 -1.38211025237477E-02 8.56194545431401E-02 1.26072871454731E-02
4.979005 -0.15725 -0.15725 -3.15585578194782E-02 0.15741096965643 -0.101388094561287
4.979005 0.15725 -0.15725 7.03982425007354E-02 0.229620346248928 -0.159861585789894
4.979005 0.47475 -0.15725 -5.26951646020295E-02 0.138559840240429 8.30433505454103E-03
4.979005 0.7774999 -0.15725 -0.103065679593134 3.83536823012241E-02 0.205240932940068
4.979005 -0.7775 -0.47475 0.756589920594137 0.157441860780601 3.85816571100975E-02
4.979005 -0.47475 -0.47475 0.107092565474135 4.21543796413315E-02 2.63897881752071E-04
4.979005 -0.15725 -0.47475 -5.94196362970609E-02 5.64857033915006E-02 -8.52401292037507E-02
4.979005 0.15725 -0.47475 -2.42890429317889E-02 0.135576531075564 -0.134390776353875
4.979005 0.47475 -0.47475 -4.10822396773938E-02 0.182913152879228 1.56190993398363E-02
4.979005 0.7775 -0.47475 -0.108817242101079 9.99322181988483E-02 0.13540751987181
4.979005 -0.7791212 -0.7791211 0.479824020318389 5.05393844424899E-03 -0.015244597841259
4.979005 -0.47475 -0.7775 3.73277078611404E-02 -0.041465283966595 -2.88379190023548E-03
4.979005 -0.15725 -0.7775 -7.12651165756718E-02 -4.60278918009063E-04 -4.14311953182216E-02
4.979005 0.15725 -0.7775 -4.04073268376558E-02 9.89234120840686E-02 -3.13339625963546E-02
4.979005 0.47475 -0.7775 -4.71002927622085E-02 0.13780926114632 1.49333697248101E-02
4.979005 0.7791212 -0.7791211 -5.85522701108799E-02 0.114038042315 4.98153021042676E-02
4.979005 -0.15725 -0.47475 -6.51419184830737E-02 6.12388124137954E-02 -9.32520342983289E-02
4.979005 0.15725 -0.47475 -3.14921576598633E-02 0.153088526275261 -0.139723474569771
4.979005 0.47475 -0.47475 -3.69378747248942E-02 0.181642761836483 5.64940340023691E-03
4.979005 0.7775 -0.47475 -0.108705393351616 9.77264471186555E-02 0.133695974497157
4.979005 -0.7791212 -0.7791211 0.438970384882468 -8.03356403971717E-02 -6.49779535592558E-02
4.979005 -0.47475 -0.7775 4.21967570283749E-02 -4.10103411429455E-02 -1.4053521604678E-03
4.979005 -0.15725 -0.7775 -0.064668686577427 1.24614996065742E-02 -3.62399069979501E-02
4.979005 0.15725 -0.7775 -4.44492750929135E-02 0.104734265390271 -3.17995522392325E-02
4.979005 0.47475 -0.7775 -7.98344641212699E-02 0.134396522915078 -1.34612154402929E-03
4.979005 0.7791212 -0.7791211 -6.24714786729002E-02 0.138663081201782 7.41652015945985E-02
5.280011 -0.7772327 0.7807427 -0.212066944125721 0.424398428260511 -0.392890127486976
5.282005 -0.47475 0.7775 -5.51236063141685E-02 -2.58539476110226E-02 -0.113044139085876
5.282005 -0.15725 0.7775 2.27613600717873E-02 -4.24172198347842E-02 3.79213074590348E-02
5.282005 0.15725 0.7775 -2.06032569803977E-02 0.072009935873435 3.79730367958187E-02
5.282005 0.47475 0.7775 -0.179235543744215 -8.37675627744169E-02 -4.89552515208534E-02
5.282005 0.7791212 0.7791211 -0.363532713377155 -0.370820909918761 -0.378659067873544
5.275242 -0.7713631 0.4749281 -0.135317761739711 0.105975416612084 -0.107975501697434
5.282005 -0.47475 0.47475 -0.173907026961613 0.197248961669295 -0.283744159576934
5.282005 -0.15725 0.47475 6.08834550271692E-02 4.22126682061939E-02 -2.94565173077576E-02
5.282005 0.15725 0.47475 -5.54609616847057E-03 -4.04560494751715E-02 -5.71706288156042E-03
5.282005 0.47475 0.47475 -0.243240189350776 -0.31329928107549 -0.141792839209569
5.282005 0.7775 0.47475 -0.231591980553733 -0.161445771156789 4.01722136100792E-02
5.278961 -0.774798 0.1552576 0.10619024805334 -5.14406496911211E-02 7.79785980428529E-02
5.282005 -0.47475 0.15725 -0.103665107196141 2.42987285722267E-02 -7.75549970149253E-02
5.282005 -0.15725 0.15725 3.80112130277052E-02 5.23658568494043E-02 -0.258222558871721
5.282005 0.15725 0.15725 1.35920392512312E-02 3.52795180573524E-02 -0.141449813605604
5.282005 0.47475 0.15725 -0.150127632348304 -3.06144172277276E-02 2.27897092045562E-02
5.282005 0.7774999 0.15725 -0.214733369717675 -2.45288203316201E-02 0.243938477040235
5.282005 -0.7774999 -0.15725 0.44057576950511 -5.41649639566665E-02 -5.08754170984541E-02
5.282005 -0.47475 -0.15725 -2.92164716780653E-02 -7.44161823821858E-02 -1.45740163983629E-03
5.282005 -0.15725 -0.15725 4.63789486675936E-02 3.33769289735702E-02 -0.283784137996556
5.282005 0.15725 -0.15725 -0.022070300660499 0.123097063593358 -0.208929103527232
5.282005 0.47475 -0.15725 -0.167334309489537 0.122323215521543 0.030866829232811
5.282005 0.7774999 -0.15725 -0.195840909878501 0.068649084956905 0.22110082657745
5.282005 -0.7775 -0.47475 0.833056477852142 8.41901022803222E-02 -0.14544578534666
5.282005 -0.47475 -0.47475 5.56700583431918E-02 -7.96720720840536E-02 -2.21204125486645E-02
5.282005 -0.15725 -0.47475 6.37717190899447E-03 2.73765456115817E-03 -0.224302102392828
5.282005 0.15725 -0.47475 -0.101986337821836 0.130195022790641 -0.176730489409789
5.282005 0.47475 -0.47475 -0.150861883163652 0.213127203588241 2.64357401964506E-02
5.282005 0.7775 -0.47475 -0.238296469993595 0.139908863813866 0.176349252959934
5.282005 -0.7791212 -0.7791211 0.198967792911009 -0.103020243191215 -0.054913831191131
5.282005 -0.47475 -0.7775 8.56962407754379E-02 -0.120034587454266 -3.91530020089948E-02
5.282005 -0.15725 -0.7775 2.68298972021086E-02 -1.50488810866671E-02 -0.129161647357498
5.282005 0.15725 -0.7775 -7.57048670544148E-02 0.15739187097414 -0.104165762897213
5.282005 0.47475 -0.7775 -0.141738729673148 0.246323226294574 2.33132873765336E-02
5.282005 0.7791212 -0.7791211 -0.13301839182725 0.190378672319473 7.63972059278851E-02
5.662005 -0.7740196 0.7835018 0.33993204559464 0.438465964577784 -0.584779163327998
5.662005 -0.47475 0.7775 3.39615169033801E-02 -0.109399945379052 -3.16130131340747E-02
5.662005 -0.15725 0.7775 -0.123705835135121 -0.137655845075682 7.13861533661047E-02
5.662005 0.15725 0.7775 -0.113626968875784 -3.25818950417428E-02 4.47888054668368E-02
5.662005 0.47475 0.7775 0.048590339170617 -8.86746840311913E-02 -7.71440510084922E-02
5.662005 0.7791211 0.7791211 0.215899529510409 -0.475402406022396 -0.328167843940289
5.662005 -0.7570001 0.47475 0.129234970115275 8.88319360320031E-02 -7.38002586479133E-03
5.662005 -0.47475 0.47475 0.086156578550435 9.15912979308812E-02 -8.96712367612839E-02
5.662005 -0.15725 0.47475 -0.11502504711729 -8.76730114969368E-02 -1.55946151867616E-02
5.662005 0.15725 0.47475 -2.86406232993335E-02 -9.53355764777386E-02 -4.40684960358943E-02
5.662005 0.47475 0.47475 9.17593874534506E-03 -0.271366605815866 -3.98937073045525E-02
5.662005 0.7775 0.47475 -0.140944072889461 -4.80496659095173E-02 0.230184102039606
5.662005 -0.7685446 0.1511942 7.71639159416372E-02 -2.34043320839199E-02 0.133321975415382
5.662005 -0.47475 0.15725 -4.75924741050585E-02 8.68007388152205E-03 6.27976032879761E-03
5.662005 -0.15725 0.15725 -0.14933409744386 -1.82996465613802E-02 -0.200101853154118
5.662005 0.15725 0.15725 -9.90910538410398E-02 -6.60678175977362E-02 -0.217829166092532
5.662005 0.47475 0.15725 -0.187344819104811 -8.50885545060459E-02 3.23067619120678E-02
5.662005 0.7774999 0.15725 -0.154685773509381 8.91814075079429E-03 0.244190583590436
5.662005 -0.7774999 -0.15725 0.366270104748845 -3.64086137106987E-02 0.05649781446664
5.662005 -0.47475 -0.15725 -5.34110153945643E-02 -4.92243694191012E-02 3.46192775781865E-02
5.662005 -0.15725 -0.15725 -0.146928970118353 1.77669121041742E-02 -0.247011059406593
5.662005 0.15725 -0.15725 -0.131752033752234 0.119664623571909 -0.283742600711794
5.662005 0.47475 -0.15725 -0.157212026483272 5.17373841921627E-02 7.88395337226523E-03
5.662005 0.7774999 -0.15725 -0.212113793188782 -8.17061829723411E-04 0.210937104041032
5.662005 -0.7775 -0.47475 0.786127905916796 0.109182778579004 -5.84090218096311E-02
5.662005 -0.47475 -0.47475 4.86262562019952E-02 -6.19401335160589E-02 4.51293872192517E-02
5.662005 -0.15725 -0.47475 -0.123306525484626 2.24027422291306E-02 -0.223336413461958
5.662005 0.15725 -0.47475 -0.145143640814093 0.186065036483472 -0.24808459687827
5.662005 0.47475 -0.47475 -0.148777832102023 0.171747518344487 -5.73639925343173E-02
5.662005 0.7775 -0.47475 -0.177542784389631 0.0907758744214 0.15148487535033
5.662005 -0.7791211 -0.7791211 0.326139348928951 -0.129988200427812 -5.45458820074258E-02
5.662005 -0.47475 -0.7775 4.14269223075247E-02 -0.111052340632855 2.14976223392048E-02
5.662005 -0.15725 -0.7775 -5.47177438874608E-02 -2.96634875281758E-02 -9.28548481886232E-02
5.662005 0.15725 -0.7775 -0.14952260924614 0.106880996389712 -0.170624743403833
5.662005 0.47475 -0.7775 -0.149157169364129 0.183493096995842 -8.32609643190778E-02
5.662005 0.7791211 -0.7791211 -0.153478043211677 0.156515611654471 1.64672481545316E-02
6.0205 -0.7740196 0.7835018 4.77996981540948E-02 -1.02184666114449E-02 5.69088268735576E-02
6.0205 -0.47475 0.7775 -2.06500271317229E-02 9.02052667860724E-02 -6.20146887938817E-02
6.0205 -0.15725 0.7775 -0.110646497249294 3.07726455257249E-02 0.126747278496082
6.0205 0.15725 0.7775 -0.161065977966675 -6.34201264224197E-02 0.141398790058109
6.0205 0.47475 0.7775 -0.237462706899511 -0.194113149239167 -0.123679868650518
6.0205 0.7791211 0.7791211 8.50320466582215E-02 -3.20088045159471E-02 -7.85598769544117E-02
6.0205 -0.7570001 0.47475 3.79110661873024E-02 0.115707887019491 -5.44288360253825E-02
6.0205 -0.47475 0.47475 6.27742146251779E-02 0.468864000861991 -0.724254886688105
6.0205 -0.15725 0.47475 -3.11101192657965E-03 0.344357181952354 -0.115026059687533
6.0205 0.15725 0.47475 7.43903299785275E-02 -0.415499483659866 -0.245012884962915
6.0205 0.47475 0.47475 -7.50650895595259E-02 -0.580245899125304 -0.498390645673374
6.023502 0.7673298 0.4736993 -0.237250299413938 -0.070467393639736 -0.070733374205905
6.0205 -0.7685447 0.1511942 0.111600962727572 5.24886266725591E-02 7.59782510372841E-02
6.0205 -0.47475 0.15725 -0.061346849668661 0.214325633353331 -0.464148921927565
6.0205 -0.15725 0.15725 2.47619110292872E-03 0.395350389919121 -0.526713185499044
6.0205 0.15725 0.15725 -5.71844066707426E-02 -0.269829653786861 -0.478058353337202
6.0205 0.47475 0.15725 -0.222154322743181 -7.48569646594385E-02 -0.125344156443454
6.013553 0.7620652 0.1575063 -0.23170055264218 -4.72795611315659E-02 0.151256611530807
6.0205 -0.7774999 -0.15725 0.379811897895015 4.01989816173978E-02 0.142470838499286
6.0205 -0.47475 -0.15725 -4.91319748701255E-02 6.56017011336856E-02 -9.58973883054729E-02
6.0205 -0.15725 -0.15725 -5.39723346557927E-02 0.294847879735593 -0.489793801024554
6.0205 0.15725 -0.15725 -5.66312815901662E-02 0.132884307991707 -0.466027505957553
6.0205 0.47475 -0.15725 -0.161465516030878 0.117594981254192 -0.034637038875588
6.021696 0.7734486 -0.1618742 -0.229236422300667 -0.024931524754509 0.185502172739607
6.0205 -0.7775 -0.47475 0.886261607677069 4.42141767030697E-02 -0.137803201621645
6.0205 -0.47475 -0.47475 7.14064291179457E-02 -8.82266129165443E-03 2.55084544368672E-02
6.0205 -0.15725 -0.47475 -7.36246280140241E-02 0.124177874683509 -0.243908843512567
6.0205 0.15725 -0.47475 -5.19898881728237E-02 0.212762050681486 -0.314272631982482
6.0205 0.47475 -0.47475 -0.162231019260098 0.192699133768867 -0.113666455493692
6.0205 0.7775 -0.47475 -0.147583992177889 9.70315403711632E-02 0.12696007127734
6.0205 -0.7791211 -0.7791211 0.429953304234792 -5.80593251110647E-02 -5.22959644280568E-02
6.0205 -0.47475 -0.7775 2.81490290222884E-02 -0.075134582215021 2.79328079190048E-02
6.0205 -0.15725 -0.7775 -5.17326991554458E-02 -2.78834770023218E-02 -0.106697245575546
6.0205 0.15725 -0.7775 -7.61078349451449E-02 0.13432009441215 -0.192641121193283
6.0205 0.47475 -0.7775 -9.29654071259213E-02 0.182008684223028 -7.21502576773605E-02
6.0205 0.7791211 -0.7791211 -0.104665378641558 0.14079970085386 0.041527875840699
6.380326 -0.778061 0.7798509 -0.285595693494039 0.418123781596201 -0.447487223625272
6.379005 -0.47475 0.7775 -0.209464884714726 4.59411461587003E-02 0.174660037539127
6.379005 -0.15725 0.7775 -0.115850792839928 -3.60900348377412E-02 0.130370544334301
6.379005 0.15725 0.7775 -8.27135942069974E-02 5.64432142286169E-02 8.00658221039186E-02
6.379005 0.47475 0.7775 -0.169543382453393 -5.89439192478488E-02 0.171090947693601
6.359372 0.7743598 0.8018053 -0.458327077649687 -0.499169351316888 -0.27678366244836
6.277052 -0.772396 0.4748883 -9.81654752074199E-02 0.256646717299107 4.67432966602627E-02
6.371746 -0.460947 0.47475 -0.101707196540108 0.220185244290049 3.96092751056776E-02
6.379005 -0.15725 0.47475 -1.39815802732498E-02 0.117956218322599 5.75188255897088E-02
6.379005 0.15725 0.47475 5.27926594598486E-02 0.1172950160781 3.60930564833382E-02
6.379005 0.47475 0.47475 -8.02990905077995E-02 9.45646281717728E-03 8.78195475221002E-02
